66.41894361896937,1.0,68.53502704416812
296.0245594258814,1.0,56.49775492514612
45.57517317951702,1.0,86.15139122743915
3.4085083333651625,1.0,52.032917300505645
708.9558589291541,1.0,45.87888679617049
178.81135639075111,1.0,41.23583778447336
-4.402952200499286,1.0,83.48413794050839
175.19747718035626,1.0,122.35456335118471
198.11797091564205,1.0,34.77700701029016
-46.328846925815526,1.0,65.92739411305237
260.64664444807494,1.0,132.14485183469316
363.7979981476208,1.0,72.93951256709529
88.31877177426074,1.0,45.27982484826063
-120.39059000860595,1.0,107.67449142277985
100.64153055836952,1.0,10.716558208119615
213.52691741594194,1.0,73.92970345439174
37.61730593111437,1.0,167.96554811206568
-208.54689579559624,1.0,76.50933099163838
-281.5298514384,1.0,86.7608142323806
-174.1354896336739,1.0,56.51136057987132
98.096885848951,1.0,109.34369791616132
87.44299090626714,1.0,103.4009908315233
126.67279172170716,1.0,94.5063236589375
262.4938056735757,1.0,58.88945131174392
-89.43698066228097,1.0,99.65954613071263
89.55001746006317,1.0,58.49363852126608
45.29442971260256,1.0,104.88851228498632
204.60192459181826,1.0,95.47473433634966
0.7417244821588866,1.0,97.09661540249935
-2.4171926483469406,1.0,111.66901858460801
28.542133418486955,1.0,41.15953478067273
95.02929159515514,1.0,107.86128816680713
-34.131871164114926,1.0,53.60919786859235
-184.07577416433696,1.0,98.69831893927515
378.8815430073158,1.0,109.6474700811226
69.84018046501986,1.0,-1.9142340473775334
261.3615890840052,1.0,143.20988068675362
368.89492262339735,1.0,53.02523280645835
172.30642957546124,1.0,92.65147398578675
-281.4780321991625,1.0,63.4664158893289
317.3607748957779,1.0,67.21637614245284
-30.65249999157112,1.0,59.511866258198275
172.8903387340843,1.0,93.89026228511297
-5.3728506578404165,1.0,85.87256569927172
161.60437182182005,1.0,33.50653929256764
-219.6700631028521,1.0,92.89738116583646
165.3659051824478,1.0,95.9231711930378
-121.19005786626028,1.0,101.08896105091151
-21.060871465311635,1.0,48.208491956098555
153.97113465024523,1.0,106.26163853909733
-165.00239725710577,1.0,101.68240109864098
-53.06642540839047,1.0,32.75977169471986
-57.431815798975975,1.0,53.13766064595315
379.6987742759783,1.0,37.11878669078348
165.6001255628522,1.0,60.91350395824958
185.35929375124704,1.0,29.60594813869865
389.3124449602672,1.0,45.27845962344034
-165.6292908483229,1.0,51.837052439593975
-204.86999604867538,1.0,40.52452644385128
231.7894652030253,1.0,117.14156937828115
250.82805488486412,1.0,68.96486377296635
113.98317544952577,1.0,80.9379676551379
46.411871266722216,1.0,83.74347567788082
124.60831847628396,1.0,64.97323881852803
98.71272908501594,1.0,80.34034528987428
284.3925696829254,1.0,54.91701599022093
-96.03869646987366,1.0,96.91398650894043
-225.41789783811026,1.0,131.81034115583986
220.04003089496828,1.0,33.1565610494396
-4.590874824175572,1.0,107.1744710108006
280.5038378070603,1.0,149.7355418696849
-50.420771161350615,1.0,94.81590165892194
412.7489277030052,1.0,63.538529965320166
6.125529244103404,1.0,114.82586618755862
-147.93966857082287,1.0,90.2005905125513
260.1094444452888,1.0,47.31018097073715
-119.40596424962644,1.0,80.77482580881485
141.14334389307567,1.0,120.4431083743068
26.31391032038212,1.0,149.21565467292695
312.52691203745457,1.0,15.888620026509749
110.19255264049197,1.0,42.37621259967009
196.41790053566308,1.0,95.5608962499286
222.82964529539976,1.0,27.489372574892414
-101.87950751780389,1.0,110.49860753934249
175.59280255660298,1.0,71.19071513039808
539.972714238005,1.0,77.06098911710177
-102.66981604829192,1.0,22.74847080650862
97.57683406371841,1.0,89.59229209762066
60.792237342050896,1.0,58.777513777415024
280.5924910313017,1.0,30.383258770864323
120.84754157021652,1.0,104.10818353192604
37.39370214120341,1.0,40.29989963586644
180.04187155634503,1.0,88.88784599382835
80.85064330205697,1.0,83.57901581747637
100.44007606287414,1.0,65.65412719279206
-15.430432414117902,1.0,36.06081990539771
-11.379515458458542,1.0,63.99752598763505
65.33127536132571,1.0,63.87975617799169
471.31578901750106,1.0,62.49803578506513
14.981542084404666,1.0,26.784526374807406
464.89500972013644,1.0,66.09420109817819
-130.6971067911494,1.0,45.5190293114794
274.10198861041715,1.0,84.29128142212001
11.254478921061533,1.0,101.53971435175143
204.80852170742307,1.0,119.83581444472529
-183.27294617550638,1.0,91.62192942610098
-50.44755178225461,1.0,66.04594912278945
-30.441078761393243,1.0,33.8905079116476
155.28788094966083,1.0,39.53859680349864
34.55140615793505,1.0,105.07326893231806
64.62930867151181,1.0,56.80442077543037
201.1021957129173,1.0,98.12519065670932
100.80036663112492,1.0,65.809841123301
-114.27345600438468,1.0,54.43078313779699
481.29971180924304,1.0,72.7114240779596
304.9476425676158,1.0,53.19630958040943
130.50502039020154,1.0,136.0079017584064
-157.57479928813865,1.0,64.86961939473704
327.76857400816715,1.0,30.778077109310786
-180.31820429931537,1.0,51.76169605054177
539.2155481812479,1.0,13.05774030919671
-154.84168061477885,1.0,140.51837735931068
-8.474845575491713,1.0,131.55859800171658
-33.463363279764195,1.0,91.08644088453283
135.44769898397604,1.0,133.61528488770546
406.7718391299793,1.0,76.80650187898371
270.16251828884975,1.0,82.60204780419114
110.63784828123343,1.0,45.936596183423966
228.53286741360142,1.0,63.179587039354544
213.82353079797514,1.0,79.94239568094609
205.77933669486356,1.0,143.93550181839242
-160.304731977624,1.0,81.14263276561682
160.80768347530812,1.0,115.6864888684566
328.38389478001284,1.0,58.27630248947423
98.5481484520107,1.0,64.50577206915715
486.2607869985222,1.0,55.77958238454057
53.67847904147675,1.0,64.39033148864239
491.98140559678484,1.0,94.29778554241744
118.17179796769885,1.0,36.38275094633283
174.10680820022344,1.0,64.05560642667139
-31.28147038012193,1.0,56.12444271377238
122.88488362352311,1.0,37.78751309319098
-105.28661495666358,1.0,35.51365272061303
279.2641413074965,1.0,68.48270176563209
445.3469031321572,1.0,72.25156700993654
78.60215187243456,1.0,76.55592075615824
317.3813282948232,1.0,92.78985907465335
31.982518422543578,1.0,33.73412698352972
272.57645719432907,1.0,24.812354979147905
-138.7596363714934,1.0,38.72176630753019
396.84596179305356,1.0,117.43516544806357
621.7834948993253,1.0,140.65007186954125
-164.3574782861964,1.0,88.52268887365514
75.97488725807938,1.0,52.24403167076825
168.9208424988249,1.0,59.09742454321301
230.2645667365361,1.0,96.08209914143839
696.0020475145396,1.0,129.38944680628413
-328.93279392365844,1.0,71.97926759707073
90.15522047849485,1.0,48.22703634350038
263.65060016134305,1.0,79.01657417264182
-151.71165830643054,1.0,71.91707048739407
351.1340892545297,1.0,0.8474170459790145
-182.40357609710196,1.0,82.76831262876085
395.36423587687403,1.0,92.71279571981546
-8.497846057938858,1.0,70.14127455886285
-295.6279026707794,1.0,63.38197244854444
93.94351292132987,1.0,7.0762323210344675
-51.72684912561931,1.0,21.27790998168416
150.4710134770243,1.0,67.38049641078037
297.86526109849956,1.0,63.25530702441597
-127.6736576770551,1.0,131.99188959286457
77.97761151059896,1.0,114.08429797656942
199.7043278053137,1.0,81.07337363364266
291.8686656701937,1.0,31.476441570951557
-74.03498353168223,1.0,20.633918840010097
151.97177192964264,1.0,76.73788001617088
399.1499219605094,1.0,125.46457669318883
250.53924146068408,1.0,125.54833152290973
-10.54258477307674,1.0,33.9669847538423
76.22667567344638,1.0,61.06128175446065
-57.642577252154126,1.0,72.35293430081236
72.5951118168677,1.0,67.72172556174053
-110.63550686566637,1.0,69.24564189569176
21.128660234537847,1.0,81.86318016799345
-117.04344664741933,1.0,59.62383695851128
-190.06466939455657,1.0,118.12118931809961
410.53115689472526,1.0,15.81675138802047
-3.029283115997657,1.0,122.56711860314043
-93.32985202670534,1.0,87.25841246619973
-156.96767100963484,1.0,72.73515405513638
285.186633595954,1.0,65.1861023710713
-81.941664791427,1.0,84.02330000798132
-67.3253346243732,1.0,88.77455637393842
-12.088968464090925,1.0,111.9387401009856
146.99714863943058,1.0,131.97698506016397
114.49425627725537,1.0,139.47857895601956
293.20643590123257,1.0,97.3178972458748
256.19126716416844,1.0,96.72347442724852
122.80590167223146,1.0,65.57037561439161
-166.59767400832675,1.0,9.918093393382946
106.44910720045796,1.0,75.6154092219446
451.6195805647716,1.0,96.8529616331129
154.7352534374111,1.0,72.57472031377776
539.5737430315564,1.0,98.80200756123403
229.9295136158284,1.0,108.27807508767272
56.58180125992548,1.0,89.83332908301202
-110.43349770355687,1.0,97.2232626294266
83.2115295360513,1.0,87.49495033549464
181.07535572862736,1.0,8.915277994388305
212.94547187820535,1.0,64.87173634975096
-15.807095361359288,1.0,37.085135879725236
-34.455676554771685,1.0,135.44485285995324
206.01440187418729,1.0,47.9249697366525
373.9733897741639,1.0,41.32422420509039
150.04504779678985,1.0,112.95886766440637
314.9846857693339,1.0,98.11137719551331
299.8873120029,1.0,106.35507054985283
-13.688621051360727,1.0,77.51085058090439
156.20573643501493,1.0,55.99596019843384
224.72361366258266,1.0,94.07237551989058
-169.69913161562027,1.0,84.65084550189064
289.1647144585571,1.0,3.8103094576007805
6.530579138008335,1.0,72.1176601062341
-67.2520245533419,1.0,109.03286401111906
-167.82297133613991,1.0,60.10420520557469
-22.355183870336077,1.0,46.12226356605882
260.0083361340253,1.0,104.32935689963587
96.20051757634941,1.0,94.2090840552191
193.85511901858268,1.0,40.7348455866493
196.70328079676898,1.0,100.60303666953796
-126.68370818196806,1.0,104.8102640688075
137.71558101971027,1.0,78.71636496462958
306.5900997901987,1.0,59.94989031355568
146.90052188513116,1.0,98.88934056858517
239.85217538478227,1.0,87.68801495416992
157.75886043825358,1.0,24.814795956039795
188.83518734753875,1.0,103.67019963734846
182.98492507809533,1.0,88.34853152857872
130.55560813785226,1.0,123.808883391596
26.377172315223362,1.0,67.11181302636187
111.40658608206229,1.0,32.96721595088756
-9.56726337864366,1.0,103.4277879531913
-162.14809538504483,1.0,58.73508935680255
-31.197164675141636,1.0,84.89991528253212
-155.93711904109227,1.0,85.52891736512436
35.54440666583535,1.0,27.18497797383027
225.05867522967216,1.0,68.74687303020207
196.39183258979867,1.0,95.02700547579903
355.66704624533537,1.0,85.73920027400679
-23.000930169417018,1.0,83.52567758684548
146.0056752675109,1.0,89.93834164628504
-16.43665143192277,1.0,51.404409503334975
324.10420302788344,1.0,26.93499437750404
255.66174725162008,1.0,38.95265363170245
44.66259539334667,1.0,45.08555853695367
-133.3195727841807,1.0,50.275654319294645
-114.80372948536126,1.0,83.95556044252156
21.13341538583829,1.0,111.08560494138644
404.04730878733847,1.0,105.31353642752674
-335.70365904676606,1.0,106.79994056089257
-41.67137748686088,1.0,20.001514603701274
5.08540756472577,1.0,99.94056910493254
316.60519373689317,1.0,36.80336519745957
-34.791607869193484,1.0,82.57302981703617
8.827897745274868,1.0,88.11697734738223
-96.08739005587549,1.0,9.231419591027958
252.06420796957644,1.0,111.0465676274292
-46.62574539606061,1.0,120.34502185747019
189.57360687890997,1.0,79.59002532582576
-153.04809796233033,1.0,54.662933411590615
176.22069560185028,1.0,50.3048375546531
-82.2453269772443,1.0,87.67188287534839
-104.7436468760468,1.0,63.18125455065807
372.81458264650973,1.0,110.48499027933839
195.45748447452877,1.0,104.04764924853274
207.3625761514078,1.0,49.81465972704949
368.52449073888505,1.0,-20.60508129863517
43.513340376821354,1.0,143.61132734826384
-44.6671553077102,1.0,37.813949542098
305.55800547931017,1.0,99.98060311714755
-38.555159283106946,1.0,54.1344189825857
-259.42994083300573,1.0,18.51968163541374
130.61272996141412,1.0,48.62673218722799
276.7374465848339,1.0,27.07284967550826
-0.8996109037429534,1.0,53.366329301842214
90.02320505169453,1.0,158.60390914636892
-37.55974644285661,1.0,62.767627088424064
83.87115016448371,1.0,57.17152335461833
-116.22193142827953,1.0,117.40554820575962
5.577275859792408,1.0,9.428383226820252
441.6550073762859,1.0,98.63350537823729
104.1076317371837,1.0,124.08630778127015
42.3955870253084,1.0,96.40401330899147
146.64673317685262,1.0,60.4060307354649
43.988121407040914,1.0,87.30855784641128
55.7782933017389,1.0,82.3086479292927
41.58371699735838,1.0,84.40909779927816
231.97376367445892,1.0,98.65702757558753
-162.28999006048696,1.0,60.44745730823311
101.59195499786232,1.0,7.132357696397904
203.7004513686386,1.0,99.7910324986301
-36.638153909667835,1.0,57.96163688444673
0.16737694260019964,1.0,107.85583363405149
251.13028426984303,1.0,34.18988004731264
152.7098718340443,1.0,31.051373915383472
486.526805846186,1.0,36.1145388204909
235.4702724500053,1.0,71.10764103669841
39.18509365339392,1.0,64.59725639259203
-35.33506328281629,1.0,119.45713528509182
116.37406272470616,1.0,50.85245644645927
148.6404453493614,1.0,71.51540062734983
61.81018461774511,1.0,87.60074969279589
287.3855813409324,1.0,39.058885422985384
6.2953863979287945,1.0,121.76063206985526
305.4113494762412,1.0,97.83608333743038
252.43133483021603,1.0,62.45508373202518
512.8810889871663,1.0,99.89109757222394
-131.20226612053068,1.0,133.91002919228694
14.957963078296245,1.0,74.8909912825543
49.811285599652955,1.0,53.43913220315235
-54.98096029814391,1.0,127.64584861823117
41.33156051950395,1.0,96.06804342541292
286.47574896537844,1.0,26.70600702897405
186.04759529568142,1.0,64.37796700142152
-4.641220624718073,1.0,85.19850213419747
-15.834652422108036,1.0,34.139308845302914
-89.3752075280762,1.0,78.9864170310377
295.76897138124275,1.0,76.91634934114725
13.979669446807193,1.0,49.22427769460431
16.88841540965629,1.0,20.092753540764726
106.14930191601952,1.0,20.10865232012509
28.791249565331427,1.0,93.56004447608531
28.49110840574282,1.0,33.15045409215957
-103.10166765746018,1.0,50.262723620494995
169.2592463312708,1.0,89.94204502463708
-25.306668493224834,1.0,124.68770128426334
141.5915811845035,1.0,74.08843235310769
-48.099567718791405,1.0,96.34531287387763
318.7409159657316,1.0,9.593045532432235
165.19560595410934,1.0,101.88872206401359
-100.0398955369231,1.0,123.09377851321193
268.5765599506735,1.0,78.74693454371494
-40.35750576251161,1.0,29.132922399009708
703.2372056622355,1.0,54.02823379689871
155.04273763682485,1.0,91.25168071647205
83.50059531540975,1.0,39.61312897623055
487.4526245647461,1.0,12.140255713894298
171.75962899564485,1.0,121.01880868342084
-17.867732266899978,1.0,122.44007108686674
79.08284507818553,1.0,74.185252661602
-72.31468720025396,1.0,70.20390727541847
49.71036908281956,1.0,56.44127629726719
14.555476913958444,1.0,74.11312139562895
70.96222669392745,1.0,105.03357294518905
195.2773593421528,1.0,-20.318153288756548
116.40529676357237,1.0,67.13066278339633
231.46582654629555,1.0,60.97497516299822
235.80554305870496,1.0,31.807948357995507
99.25364119538517,1.0,64.83583731626734
116.31712273626998,1.0,81.83532493084576
216.66609068951308,1.0,69.01231130198617
388.96215587939326,1.0,45.22674340104179
264.87931375883136,1.0,85.96669475242781
390.9405992531746,1.0,54.62092063483574
275.4143327715949,1.0,155.96799648395927
452.15213958378877,1.0,1.8426680024042952
226.6757066923279,1.0,64.04100130600959
241.708839043781,1.0,52.01906504492281
13.167255164994899,1.0,111.86286401426648
335.1840490882216,1.0,108.96919535826925
415.6841784612631,1.0,42.91879593222203
-66.32137799464277,1.0,76.81644670238016
25.85059545062832,1.0,69.33847491107086
12.230023658343,1.0,124.43051755873697
382.83578828374755,1.0,65.20863258287301
346.4514663605073,1.0,83.79879214056713
130.2188027927704,1.0,39.40677374217536
175.36088577712871,1.0,61.82911236795282
268.77223383344443,1.0,66.29346501832427
-150.2850877535776,1.0,45.73342162388037
436.42987798362253,1.0,32.19857540863695
165.62913954249547,1.0,77.15266668890183
290.8677885004209,1.0,70.53646949656736
105.66337368386742,1.0,62.15346658553517
333.02127841266906,1.0,110.51940454902379
44.97929825869909,1.0,26.39363083933617
127.28441814014933,1.0,55.376064797912306
31.70815308274797,1.0,82.73343542252833
116.92153509193538,1.0,14.395931911182934
424.901256950133,1.0,105.9740262047471
-128.8464726319371,1.0,20.314619928987383
157.75747872266942,1.0,94.47203930979005
-58.2094455432769,1.0,86.88266271858056
256.8621681117155,1.0,0.09936198545973696
132.0494801693723,1.0,88.68436753145774
-67.5668286433588,1.0,78.47198402912205
161.6215632555028,1.0,64.37919728815639
-95.18948108765542,1.0,19.9238582961624
37.35466441663501,1.0,86.2649485047503
227.082845862819,1.0,70.48444939359361
187.63770888061939,1.0,69.20641966826676
131.39113671849705,1.0,83.56384115035713
91.0446921639927,1.0,60.89107717744611
291.64114675702916,1.0,50.265653848746936
-24.607269880361017,1.0,161.02510786396942
85.98492483205192,1.0,99.52866537805704
104.1114358984089,1.0,56.79155431982244
256.3620071076367,1.0,149.3716318694816
151.98922800233944,1.0,60.19467091675514
-56.59183599636509,1.0,71.07515523956413
73.87127053750837,1.0,114.4067472671167
-10.999813345091525,1.0,27.693378159488788
253.46013505926035,1.0,35.30702727657891
276.86817531636257,1.0,77.09694216358267
130.91682390708527,1.0,77.80501889442608
-116.40878969546239,1.0,43.0396470490755
374.86761677598446,1.0,92.86681730777246
400.3315665749329,1.0,107.43896507430851
43.77029094462985,1.0,83.34082318319706
238.30174038469073,1.0,83.76483662545817
-82.35417751302413,1.0,56.93826760710647
0.36611417677472957,1.0,61.06338586301278
201.6699629169901,1.0,34.18462579868972
248.29073089404716,1.0,15.601244585452811
-90.8183493774377,1.0,104.62421482050632
-75.86232177439354,1.0,62.58601613534282
7.88265311295909,1.0,30.864356899456354
253.42249621773666,1.0,25.366072654724142
39.29526367378847,1.0,56.77875915961948
495.4257227420553,1.0,118.01339407544712
-135.27422185044006,1.0,71.2979427401041
-113.26477104823635,1.0,99.8434836531084
367.0881692696571,1.0,74.76066958048465
149.81861037237985,1.0,114.29943088255882
170.006554127274,1.0,42.15002909817245
252.97361841355473,1.0,45.622688407113245
-63.988207776791455,1.0,76.0765005523089
-143.79272284005916,1.0,48.19499129496663
202.09775490875597,1.0,11.070406988918577
138.71628291685215,1.0,76.75609415165432
187.06384864416742,1.0,6.488001372254331
-33.6595111289119,1.0,40.29684858130619
105.88186809318289,1.0,86.20825601469093
-501.7911624457786,1.0,80.6063179178737
509.73922267070515,1.0,56.416842205512374
17.817358419000143,1.0,89.92558801734717
199.7995269159196,1.0,43.00035240620653
400.2911322056504,1.0,56.345038572981494
226.337524965699,1.0,50.62751631382801
332.1314171149031,1.0,45.901565877747636
-56.26320729928756,1.0,84.73574092756499
188.50862055107382,1.0,33.510769137567486
187.41778266268742,1.0,47.055914500728264
-81.80501305438878,1.0,98.74315210615404
-41.17355105099375,1.0,20.85491912257934
268.9499100152351,1.0,118.87886871072993
-136.71957888332872,1.0,3.210680084149317
307.5698030435944,1.0,79.41160545776714
166.93946594186215,1.0,37.54518568647297
151.96431661518739,1.0,113.4987589856159
-55.828735646822764,1.0,53.932868711374105
348.4578623612972,1.0,95.04745952971771
62.6675823198262,1.0,40.34662572311323
-24.463620422859563,1.0,72.04899583320484
-193.06628676196834,1.0,56.20629653857726
85.443824559683,1.0,140.26928332192307
52.1880898063822,1.0,65.74256390883947
-166.80845062556273,1.0,113.29195514150862
-91.54767150203594,1.0,46.89586989866778
-228.2761818196849,1.0,93.01474138752677
175.37069660808817,1.0,73.61825827006149
151.32122188082775,1.0,77.04664879979441
214.78950409265232,1.0,81.35186968608762
-119.32207506717995,1.0,67.30033734681706
23.715985788443533,1.0,97.65640348812461
27.23096026483482,1.0,51.81511319803954
327.665205183871,1.0,95.12232809434605
-191.12705902278213,1.0,67.53919411852024
-37.36954669861467,1.0,26.017615487620468
224.15400282054372,1.0,61.83935379530091
424.74576866963474,1.0,39.07712167914881
309.7027321325729,1.0,63.233561593100866
-210.02826887399635,1.0,52.60152425567283
182.7069437190175,1.0,92.82338126140252
221.5201333289926,1.0,66.38798816331402
504.552572051735,1.0,71.27442580853372
-30.354122410030357,1.0,123.81460581865426
31.478734026333484,1.0,114.08654246942763
25.881525005272735,1.0,150.1890250456911
442.3027465420886,1.0,42.815899633638594
-214.7061396718761,1.0,84.54071615992744
66.25712332000208,1.0,44.349657272937065
85.82428388296356,1.0,39.27656930068456
-82.50402715549038,1.0,113.98470043616116
148.8343514306208,1.0,86.20537790265871
357.0529128141208,1.0,76.7120017570842
420.69294956025874,1.0,91.20716462315039
-290.9320016042324,1.0,70.98058103690143
-53.58961697164236,1.0,37.86932716130623
-41.714800538294156,1.0,40.233920945543446
35.558220840091565,1.0,96.1141059724049
216.6265347662898,1.0,101.80256883778513
66.95808143209024,1.0,70.29289136427305
75.2717432754365,1.0,66.52251212629348
12.738493174178728,1.0,21.477605301166747
34.83933194148537,1.0,79.2804956963785
171.76419881234239,1.0,82.62121006759122
-5.732529297205133,1.0,30.809843154815432
-66.75406293298346,1.0,25.46917817182004
303.7346981596508,1.0,99.18020165131779
-10.48771044535006,1.0,96.38698146454264
78.55813218193563,1.0,86.9827299097369
101.59518143199989,1.0,109.07802935056009
142.47785309766607,1.0,92.78036405879433
85.12964886733072,1.0,10.93248132713132
270.0499895594064,1.0,126.83025816306541
193.74413987779172,1.0,68.98350991150114
56.497133905803274,1.0,86.86837633619677
214.3732290989063,1.0,14.164421616968305
79.66216868744638,1.0,28.433097536146207
221.0333421222857,1.0,-4.779207223715048
120.59913474757836,1.0,76.03406664166354
69.1399569863884,1.0,69.1268885319181
211.1078159049507,1.0,18.52615753617288
386.843629204204,1.0,36.153290080352164
175.23301147439926,1.0,113.2814095802911
23.02168689703376,1.0,75.21599387442929
-22.999983721858428,1.0,113.07167262346101
191.44866619587344,1.0,98.38770749726632
-258.7243845886163,1.0,79.55525260159318
242.53982439896302,1.0,-14.205330795929981
371.0172092623398,1.0,50.077511728251764
86.19202187884395,1.0,126.28404948562462
290.90733438588995,1.0,98.07648092877275
284.932982632594,1.0,93.23223074425442
275.6527702412594,1.0,71.2199791762082
-132.17364409343327,1.0,61.86140762223789
-27.37211671491366,1.0,2.519538680342734
362.6561783903723,1.0,87.12156559288897
37.6924430876326,1.0,128.62537918066596
-144.0425295373945,1.0,154.8693838267894
-215.57137785617505,1.0,72.0310677165104
41.827551659419825,1.0,29.282772204448257
103.67656261483553,1.0,90.56554842304708
63.138208311532864,1.0,107.12270018255157
203.07677191652732,1.0,60.39515758682913
68.48575814853945,1.0,103.44741409715644
125.9161640988692,1.0,67.32075066682098
205.47752592331955,1.0,48.09484345380577
78.85465469901723,1.0,41.08428443494997
287.73808542174885,1.0,82.52946321107319
277.54545740279934,1.0,73.22094925352121
71.09510182290163,1.0,75.30709347692684
-10.702116885198265,1.0,78.67870043507192
-203.6709972956632,1.0,39.86387375654183
419.0320499037912,1.0,122.00983343232109
84.83309270504823,1.0,128.16607494495528
-88.71112898088879,1.0,71.07295524288888
-85.80461821850935,1.0,122.37716027120408
152.20469448522567,1.0,54.149592625195716
325.8376404134565,1.0,68.57145994507687
-122.32012009189037,1.0,67.1715463584109
61.70977033637683,1.0,41.070859313295045
259.1225003359922,1.0,115.97150037204759
-86.56467814849688,1.0,35.348290179363616
-91.38636914148663,1.0,91.98962035194614
4.148829273339516,1.0,118.81848022110368
-227.23385127868818,1.0,73.77101337522191
-219.51955307069431,1.0,173.34015733516645
195.5036864579655,1.0,77.56194912063704
32.75542502253451,1.0,18.5985479263424
119.42847823857704,1.0,64.84956398507737
186.22796793423993,1.0,158.75283783527604
-106.57831451125205,1.0,91.54727108738506
-117.22937099123186,1.0,84.23495814292049
-164.44036178653516,1.0,70.57912862760105
36.15732126359701,1.0,6.868635916551426
133.9701700357164,1.0,52.79838340953142
170.35640328242948,1.0,75.85744221914524
176.3955703862099,1.0,61.67877356415357
-125.58736454124389,1.0,82.2263757275575
-155.73786534177714,1.0,102.13489106883615
323.53351613514246,1.0,149.07125624378943
-16.84951344313687,1.0,101.83154081812665
-253.17111098696853,1.0,108.02496529282634
-8.864816077190056,1.0,148.12876246581112
23.2305929286498,1.0,56.51837061703607
190.24120394174986,1.0,11.433586541969746
40.084737457618225,1.0,120.85423052450916
144.84947770848524,1.0,39.02815827404573
198.5905334954266,1.0,100.19601568711035
-14.089373609308822,1.0,76.71628841618218
-441.87735826969094,1.0,117.6619597965888
-235.24197453990814,1.0,88.25504652686251
470.18630390283846,1.0,1.6931825980486366
-107.84395787183198,1.0,85.3877779031724
-382.366522998302,1.0,69.38986428438392
-2.817620741310421,1.0,58.26780892695846
159.55933637364896,1.0,82.07328905964178
88.56049705460512,1.0,31.11758878195205
64.45977058590313,1.0,46.84988133622251
155.6449525153825,1.0,62.78377315748375
355.4945011486402,1.0,139.16764117828967
220.22372273810515,1.0,49.20043840563124
-85.41318274046833,1.0,73.27829744735077
36.138774943691566,1.0,53.19424505815533
250.58904253425945,1.0,62.011900961745596
214.81587132220915,1.0,42.31530059885354
-299.236750114175,1.0,91.53530339951766
27.50158011706347,1.0,31.747877688170554
-445.21498754313575,1.0,90.33674044832836
247.50751590815506,1.0,68.32889690099509
-192.54518989454323,1.0,78.46498548661239
279.59479324986376,1.0,74.48269363204503
-78.51634854935193,1.0,48.50610715865578
-161.07044515455823,1.0,110.16544815007771
0.5433605276016067,1.0,12.730922180908948
120.24609699616244,1.0,15.630368887450679
102.95191835715404,1.0,37.86750317996656
134.27151918910585,1.0,71.09768989124309
556.7460416468903,1.0,71.26353056844025
76.67720667944833,1.0,51.535981708326204
163.21888533503065,1.0,39.26860833573951
183.1699295347741,1.0,44.20332055538583
329.04943140072015,1.0,32.85558223844272
575.7910902935457,1.0,64.09131890137512
-123.89928887747536,1.0,136.23657337783914
-72.22377660262384,1.0,59.57293366398211
-20.0652980649308,1.0,106.60211530640265
-9.441612185154426,1.0,115.42981092775116
29.517436896301888,1.0,93.73050717091998
303.812049255699,1.0,76.56528196814685
224.89558782184915,1.0,93.33433481176633
-47.08150058268404,1.0,117.61836070790145
-176.08025844707709,1.0,63.28685952422215
98.29269985243027,1.0,37.38061987227629
209.1983125533179,1.0,46.53292192524721
217.9943160233708,1.0,36.920257914944195
-291.6229012155801,1.0,49.183282636488286
309.5063151151972,1.0,97.63745200149665
323.9853476074186,1.0,52.70345399393846
101.46671389821272,1.0,104.97014625697905
346.50360415889656,1.0,40.5708975665183
182.15546099439342,1.0,111.74131133412438
64.69547293182865,1.0,75.61152981323472
-32.828203851627336,1.0,54.60076423570305
182.40125437979725,1.0,145.66548510629772
135.64124113313127,1.0,112.23883481013189
154.94793723569836,1.0,111.32398888026347
505.10844739395316,1.0,47.202995074413735
-202.8865854242406,1.0,30.314318438195016
46.1914810979975,1.0,48.26639925414362
-72.57111961034715,1.0,75.02546465188793
-255.18132110819647,1.0,85.33073903721348
267.84582687805676,1.0,83.43566019834816
-407.57213502917756,1.0,97.06297075978014
72.55914646577878,1.0,151.21732251763763
324.182249973147,1.0,25.971296566694576
11.715000906850207,1.0,196.78778398671756
-39.95398116399079,1.0,52.55172253827893
294.502476236568,1.0,53.23505020234509
-122.0747900286423,1.0,67.0939608247044
79.39597347843784,1.0,69.22713444698164
-153.39723737926306,1.0,68.77438622222918
178.38658886378607,1.0,69.2198959522327
172.15525304630864,1.0,42.99085621436923
466.15415003743874,1.0,38.32517013786445
331.9738829119883,1.0,115.74875633661128
-345.70475377202996,1.0,55.68795119139015
527.0284494400379,1.0,28.522787233464797
128.08847002121456,1.0,127.73337710620937
274.75744463317176,1.0,87.47686854794027
365.0581675956152,1.0,127.43504070801666
-182.22608804983167,1.0,105.00875643772693
554.0246150226878,1.0,35.27836705730967
259.98773355081113,1.0,19.191955053336144
137.61365671391823,1.0,103.83725288206304
244.0580575986203,1.0,113.67784853323656
346.4197008870486,1.0,74.64909836607904
206.8407450548389,1.0,90.49448239934183
149.39786922569732,1.0,143.81712248994882
132.58758762538247,1.0,-16.18207480719707
310.4360345271232,1.0,83.78130615115822
348.7167647379902,1.0,78.6758875127066
-167.84328844895543,1.0,75.08809568430519
209.68050807687388,1.0,2.496235201297793
-27.754258588155906,1.0,87.35674693314706
-11.397093626885663,1.0,123.41873999102923
-160.98460562566504,1.0,95.83837609360731
360.4557860161847,1.0,123.07982295890895
310.9781765010663,1.0,77.96449667054462
225.0205908755463,1.0,119.70119010179334
32.58511606286008,1.0,35.8698918149544
241.55226214450053,1.0,90.98335266486573
124.13867829748601,1.0,57.78727274769877
-126.2314475218393,1.0,83.19456087409142
-0.7573299973290943,1.0,68.2038890715897
204.6002848030005,1.0,38.88800275827241
520.3836055629915,1.0,-14.63756751147433
126.64867280802369,1.0,102.31434764734205
90.4863882799126,1.0,63.21726130273821
96.28044703072136,1.0,89.34403982123385
298.49223704306144,1.0,77.7799617563123
234.50859154501825,1.0,29.592904178859996
161.05490325755926,1.0,47.06968039364344
-72.38192525748664,1.0,18.992206032747085
367.9992435659209,1.0,7.416268042943813
90.53048280259733,1.0,77.1506147407202
114.54170931716811,1.0,57.175867047685436
95.18976096731889,1.0,46.806108451323105
172.55175835951374,1.0,27.332561204002324
-202.6252288883046,1.0,67.55592641093789
77.85477207084959,1.0,68.386783007988
40.23709288759141,1.0,49.343182168892284
343.0402796570393,1.0,88.7657126043436
-55.44484034396885,1.0,125.04483917135983
215.25869086783828,1.0,46.119709986201016
-22.906261559924673,1.0,109.71199963106606
-92.45190139947391,1.0,76.15707231253805
98.41292125372354,1.0,89.5687384342195
311.2440354343985,1.0,90.2518381213359
-115.00461839767908,1.0,81.81474426802231
69.9909833223339,1.0,60.57412693008786
244.5575807529413,1.0,51.44377901473926
165.8931998696626,1.0,103.42513906454526
119.32226117412071,1.0,30.4965015182103
54.999243717188925,1.0,86.50708980457361
-274.7739357791249,1.0,12.702926915777432
120.91632780454114,1.0,95.62665405203458
-124.99904682534208,1.0,-6.021683021281262
-104.48339306284674,1.0,63.40048940286496
102.57361407216052,1.0,110.4484454014792
310.25227709008766,1.0,106.51385465467592
-167.5964173545437,1.0,48.48705671750852
219.36911839842335,1.0,102.65336230557625
55.82773726230207,1.0,44.137871228007015
-121.8149566553632,1.0,92.4583993946197
-21.47702130496762,1.0,46.7789497949621
-84.76024134648321,1.0,54.922239252913656
296.4870825809098,1.0,50.04381898074897
-47.35050870667118,1.0,41.8460436293274
231.9357330119278,1.0,78.2048797505323
226.54539515308784,1.0,19.358300570785445
251.01836222548255,1.0,82.93536476058486
-161.14138164893836,1.0,125.30912946102583
-53.84621058423747,1.0,97.03357588108507
405.18217324529337,1.0,51.096988179790394
-93.5626652391457,1.0,108.82651082370475
155.16329589240783,1.0,89.62613042977091
-104.2296486833448,1.0,121.40479263065708
-351.9792979742127,1.0,36.43971156545385
-40.09942447527601,1.0,64.7122673463078
-69.72505392628153,1.0,121.95855751723582
7.68983450077495,1.0,29.25019875907973
-94.51092662616128,1.0,50.8777754647346
442.1187066849958,1.0,97.77140800250574
449.3435185486793,1.0,99.08472759166057
-35.09639768290006,1.0,119.80827308252648
-70.21528840829654,1.0,41.7009611133781
-31.306637162749354,1.0,35.88481106243508
-198.21084133997044,1.0,156.23726768274906
-112.75233654627624,1.0,79.3515807616992
-107.40132662549678,1.0,48.84300092315985
-87.47249148652264,1.0,27.906232511198084
326.88954381345906,1.0,74.06338473185968
-47.872978706907816,1.0,27.098182843862148
-90.00366738942878,1.0,125.38955711384915
42.175659016735466,1.0,68.19720297223687
185.7878701256574,1.0,63.27092706612674
20.698185094375617,1.0,91.1349547941849
-64.08357146047982,1.0,14.960470495137685
-6.428217696290673,1.0,70.68179130350435
-15.142259325066746,1.0,92.32964823933273
179.004175896037,1.0,75.14473132152554
200.9291737245715,1.0,82.3062660187968
43.557756234493304,1.0,47.33591616275532
395.5021257119423,1.0,82.43716904921315
538.5930828984074,1.0,17.91527109749952
124.43620098428885,1.0,30.996381099033243
-108.36878921740959,1.0,90.61505277423936
265.3354304491881,1.0,72.27966781336944
347.9450141549685,1.0,82.32853316797377
-16.65565722224538,1.0,71.56623074205815
169.74494806384047,1.0,45.49906796427555
-304.16496294773754,1.0,136.5571687115967
288.29857952450425,1.0,101.9301830974204
-36.68593097441902,1.0,71.55259737166176
268.8071762119261,1.0,85.28457513397636
63.75212221483126,1.0,52.789171891284724
368.2844922066979,1.0,56.84942412260067
-192.48958115821432,1.0,96.14863501319287
-122.56595693688848,1.0,138.87396262515458
285.0106393666105,1.0,63.93271069738947
102.37395342063392,1.0,68.62557268246849
216.2812401731158,1.0,105.16288238601832
154.713227531429,1.0,37.18147845846777
196.8726902638877,1.0,73.83909867180131
373.8373536574782,1.0,58.32494197094421
-51.6079108298766,1.0,112.61234116167586
-254.7584110259026,1.0,90.22901862364708
36.46270345341349,1.0,-6.758412782997922
-126.76291603721327,1.0,57.562541493491324
89.37579652136354,1.0,120.19177232124548
196.23380433930515,1.0,31.99291187631428
177.77707648545027,1.0,111.91787909459788
63.10512627022527,1.0,88.23674855995831
-118.20854412389346,1.0,58.370826472738166
56.307912201789904,1.0,103.81864379045699
15.217608019737085,1.0,122.40236453110086
106.90119848925298,1.0,125.14650749121951
94.8397829997628,1.0,-14.868997616093239
-204.59828767400478,1.0,54.14742019133539
-78.53878396197743,1.0,75.5208605166772
-69.0685219431935,1.0,14.736686993166977
299.3143482922121,1.0,64.9196677832283
171.63805041935828,1.0,19.134180616204766
97.3562491352306,1.0,95.81952335382596
14.557701950492756,1.0,68.52391817274597
50.774120994516835,1.0,125.47348261118204
-35.360624500289816,1.0,-7.202940961748652
-464.61773450854685,1.0,85.35725959932033
226.36702025250798,1.0,-5.708356091191618
249.32966861626267,1.0,37.38306650927835
-71.30171034959423,1.0,91.84730350670726
109.37968476130129,1.0,76.91102748871216
-10.984145048048518,1.0,61.00635984835219
110.29619248149257,1.0,106.32395094053976
189.86687395554134,1.0,140.50929386156966
74.65131234030217,1.0,34.14902965001348
149.73631782016508,1.0,70.18050116376898
333.3470102717253,1.0,59.72656129237264
42.37886043228838,1.0,39.97471154215661
266.1822667226269,1.0,57.85416877832658
373.39010384052693,1.0,54.755187241563874
71.44353529058296,1.0,85.63916196676895
-97.67755443150477,1.0,64.1044217364889
-143.25858356710808,1.0,33.05312857746151
266.0619746101038,1.0,63.10756519276146
204.01053277030485,1.0,116.46079937633684
-105.96048762484389,1.0,99.965013714675
-68.04112122683449,1.0,63.1554813249336
174.34486008611913,1.0,95.20657725526299
-242.43883019138792,1.0,60.99442558054155
-34.62400677647068,1.0,43.000426710839484
211.6143416006,1.0,66.12215523659928
387.4012057232485,1.0,100.29200079897227
-212.0947351847961,1.0,30.021339638406268
296.4272489894302,1.0,26.886995962067118
74.79528437435063,1.0,69.29078566306767
275.59058240656015,1.0,86.33532572845627
156.94368942929762,1.0,4.668105930695845
98.53603653985435,1.0,66.79159282875064
302.0781879622191,1.0,47.96237384368129
365.4769284261005,1.0,57.974305213163326
370.03612590577575,1.0,86.66778142609036
-54.034101159052966,1.0,73.9315252942
-143.18021220608048,1.0,33.87467707848043
528.9931299424235,1.0,110.80582082963849
89.46911561458327,1.0,55.58935978610124
44.02013801748084,1.0,79.87002241377422
156.60611973895962,1.0,13.323012333262085
-150.61650484065066,1.0,28.49886266622167
338.6290421590809,1.0,131.13437806082575
85.40671435244404,1.0,59.517001599440135
311.9774866672591,1.0,72.20113804321501
372.99678800674303,1.0,49.9916623084618
263.7458224553762,1.0,92.41067859975149
-171.3085796625876,1.0,52.76507795586003
76.49741033986484,1.0,129.66527262643893
593.5331599618423,1.0,116.19042439245467
-70.16148853686462,1.0,108.52406613444222
-176.2174653950686,1.0,4.1436137594659925
-79.20288695871523,1.0,58.63085361485925
-55.09419889850011,1.0,174.32068937138155
-34.285020792080275,1.0,72.66938998118168
482.2746964383822,1.0,41.20015065175477
362.690468633159,1.0,73.56740785279365
100.0905172532718,1.0,42.52216058574062
78.88723647748557,1.0,54.28441752194139
46.34315032246648,1.0,55.417865257162006
119.98374564850188,1.0,22.045010468083312
79.79754349094672,1.0,73.77513205262991
137.74563889859385,1.0,48.83099051869503
-74.25524456046776,1.0,69.61961454493398
92.02096947272064,1.0,71.52991355083053
160.57521638900573,1.0,56.41634121680863
56.033025172125114,1.0,9.134179002582975
246.35293984627893,1.0,98.24627495932253
-134.6792533486917,1.0,110.67109373095337
-238.70635479079624,1.0,76.33192341876945
82.5172837402499,1.0,39.5085378503772
442.99814789848296,1.0,57.128585724021086
258.01792443184587,1.0,54.71475830343891
262.21417953231173,1.0,71.17948641798048
-15.909754313570318,1.0,104.6988456655963
302.25424151877166,1.0,132.34139327257606
297.1867126923805,1.0,15.112514116229207
14.300133069011835,1.0,52.603892572338815
244.31516222073546,1.0,88.65513447996383
297.35097787899093,1.0,54.58087349693467
389.0439567002651,1.0,49.70243383295893
337.65620892289206,1.0,56.36668804190901
-107.80034128352747,1.0,92.10158719757831
-82.27452144894835,1.0,78.47846383375267
339.39250062515293,1.0,98.12249820627099
14.335461876705295,1.0,77.33367214048579
105.02609243252569,1.0,32.849446978265746
-125.08820111005915,1.0,14.550521133879691
362.85366789872626,1.0,42.9744530036344
116.49709744257227,1.0,30.780386071932917
145.86957190485876,1.0,62.256833013970365
45.96410669516523,1.0,63.0598338707877
199.2103218804823,1.0,81.86314325111772
14.808129456545217,1.0,55.17873827107598
-88.29918230113597,1.0,69.03526148884646
25.626422428040115,1.0,66.76475368109072
314.06723424044674,1.0,24.608204193044735
354.5785099360472,1.0,53.02680613640581
139.98171867388905,1.0,86.22930963093131
9.059150403771127,1.0,50.993834634718496
139.5112523819063,1.0,51.686574842291854
293.1088726178336,1.0,122.4351756011066
335.1304004576717,1.0,42.851676128386416
129.35603379999318,1.0,76.97038573777228
381.8552567604752,1.0,89.18768071257834
-188.49621548363706,1.0,3.382411144113803
419.86749456184043,1.0,59.86405999369437
-241.2044637605747,1.0,41.40207023501791
279.7638539975702,1.0,78.5836374466845
-111.40378149700757,1.0,84.9730112039937
329.7846026206746,1.0,86.62615484752568
279.4192515081355,1.0,30.125037413520914
-333.2183071549565,1.0,67.10131817219388
423.3032618786056,1.0,115.98129716221919
228.43204574706854,1.0,121.08656248233007
7.235806002935945,1.0,64.60473929548219
13.282520312538665,1.0,49.01798463988135
265.22072497373335,1.0,8.21088354467308
14.545582668594264,1.0,53.0656047924748
267.90924811632203,1.0,66.28205960801746
232.39819047239368,1.0,33.68493901903245
156.31927682052915,1.0,81.564297277007
-14.86016855015211,1.0,77.03031365392827
-114.30952438670641,1.0,45.558041465975364
149.70207122915704,1.0,68.78828008615271
248.57870385104152,1.0,43.477851707585245
119.7393170083891,1.0,44.25883848400075
187.0879662389712,1.0,97.09101227848036
512.6505748652972,1.0,75.26515774182634
46.68547467724119,1.0,46.73615874603702
420.60649523744024,1.0,100.28275711050662
91.70009598557448,1.0,61.39102834797807
34.44794542014368,1.0,76.10885379169964
249.20361502454165,1.0,33.62436300408902
413.91705931175295,1.0,47.40813880937441
130.82197146654102,1.0,60.89900030702505
74.15470965729943,1.0,83.60459895055064
-188.1562251493886,1.0,113.93789493442861
244.60637724062462,1.0,164.48169682684426
77.8581001934832,1.0,36.605056977888424
202.7501706426738,1.0,74.63952574202003
284.13845628179354,1.0,-6.383413913690347
-244.7415871318401,1.0,101.6439855654536
-13.140998719504893,1.0,13.996539349192147
411.9988807495603,1.0,75.57595078135023
6.847799278621721,1.0,57.011285596588976
305.7835474491761,1.0,88.17862227388984
19.96093985196474,1.0,87.10620061755301
452.05903544181734,1.0,73.66849003751824
284.5035617351553,1.0,127.89093258256028
412.88194562279165,1.0,108.76169060850357
305.83454446605606,1.0,87.16214247619364
116.30889453769558,1.0,88.01888706501856
-41.57566156933325,1.0,49.52556577777268
72.2854099669243,1.0,80.70320205657299
112.40202360526595,1.0,95.85746768348858
-170.5989274026279,1.0,134.74399989360364
319.1317401701607,1.0,99.28661501714588
-383.42754277405186,1.0,82.63505772856401
-140.1880870561092,1.0,78.47136793614622
109.77881092474539,1.0,86.6687484743957
148.43001628758884,1.0,45.13018704426503
239.30410345831353,1.0,69.08513428820244
42.98028428489391,1.0,3.5422818071332927
67.51373428550824,1.0,92.9355599782103
327.0991792587706,1.0,76.84856836523622
98.9009858762362,1.0,101.38055134072889
-124.83104156031044,1.0,85.61711931988816
241.25075326017546,1.0,86.56781927606664
-153.11640095045254,1.0,107.19674660205857
-84.52969495410406,1.0,87.47762780577648
20.19690830725625,1.0,33.768287965226854
42.15687289178396,1.0,87.13545965179412
426.67630850090956,1.0,70.82710436162073
153.54411429835628,1.0,91.04418394847204
111.47632985046347,1.0,89.93226140825149
268.09287196013497,1.0,65.009748818679
173.16338531083522,1.0,112.62946478266201
37.6474625260407,1.0,125.65123663452826
351.14317217115206,1.0,72.42916061652922
-72.87235562031734,1.0,83.39643369967794
364.1128045930003,1.0,61.790700612956904
-52.499898718295555,1.0,19.632442443253154
173.83095869284875,1.0,46.1326688997847
-299.7792519630388,1.0,84.56859956386091
464.68728946859295,1.0,83.23360780663732
74.75611042270033,1.0,57.16476191271954
225.16480820105943,1.0,80.77010202737961
41.05912477843792,1.0,137.83205159832062
256.33461318605,1.0,50.11469271664977
30.855800231629672,1.0,5.679688225172811
10.05575369794414,1.0,39.70420076881036
196.31512565741536,1.0,34.62698900629424
16.557009274548236,1.0,72.47997312282722
215.8589008244273,1.0,87.21547240858325
230.31872708520322,1.0,100.19787753325815
340.4955195130772,1.0,5.142866819238861
66.03290023645258,1.0,17.841291884030717
128.75808833917122,1.0,44.25324619501813
310.22336543067263,1.0,167.75999943733655
149.0412083431371,1.0,76.97719681596698
35.79014221030366,1.0,79.79076163035481
67.57377087852012,1.0,53.56506075980873
20.737656077538077,1.0,68.93601956770956
-188.4428353813051,1.0,31.78712793925063
-103.06883625906576,1.0,165.23616250282313
159.9813206221373,1.0,125.63500847045385
221.70785523969798,1.0,8.609856184974824
252.29475714139605,1.0,132.4671563348743
-14.958317723794565,1.0,31.576729574156097
-384.9814422999815,1.0,75.56231143122082
-335.20397025053495,1.0,75.75503739170587
-47.737610256000266,1.0,119.03916212914638
208.34493157655578,1.0,75.74958960373633
-68.79354600553887,1.0,78.20493679322092
229.2863139993362,1.0,44.25749717514238
332.30223438451253,1.0,98.65310261870137
334.6424749432516,1.0,90.88741518965449
136.66358122855257,1.0,26.75206382107512
114.44043131054532,1.0,55.02779192309242
376.00988634294805,1.0,102.69152525166245
354.6718596727903,1.0,66.87144734469844
15.22471613942109,1.0,138.32429236273276
-217.4983968407672,1.0,85.1939743564127
108.72319168672587,1.0,84.70585122561722
-247.52782130528476,1.0,91.32442623781563
14.408868700451265,1.0,47.59499327258312
-94.26053023553655,1.0,145.5070528872552
390.01540948218593,1.0,27.311071460031087
149.83250862214354,1.0,114.98780747545442
396.6860711472285,1.0,80.17144355633305
588.8987767089865,1.0,40.49075163689895
110.61746977916307,1.0,77.91486160092323
107.46134435678363,1.0,71.82138525170926
509.7701933911577,1.0,67.43000907682753
394.107777838549,1.0,82.70619362697624
52.516686321968535,1.0,80.5422450999553
158.84058082554907,1.0,5.223238275711893
274.6891513112793,1.0,71.60449576885706
407.91363137139666,1.0,147.00474282839207
17.949139400878863,1.0,131.11208106062992
-18.235532242687384,1.0,32.536726985110484
222.79407230806262,1.0,83.5451535526758
311.1726328767718,1.0,78.46867224070365
381.48160522453344,1.0,31.64055435078184
-8.726057183359131,1.0,113.64008278942484
300.2071206170356,1.0,121.71643807271222
172.62749293893984,1.0,36.20771150552841
209.6211005424343,1.0,45.594420318811586
44.6220961148167,1.0,105.931665329678
-32.34477978228321,1.0,109.19279400868741
155.3259221674072,1.0,104.62600574745521
-115.30762845953916,1.0,38.642186773118915
-77.86774232233643,1.0,133.82584701294198
-173.11402634995312,1.0,54.664639657597284
-161.59816597571495,1.0,34.958519964390184
-162.53958401742688,1.0,131.08241442420865
-353.01201188979564,1.0,91.54355710847916
250.4597936874921,1.0,77.92950093796581
-227.9124518650467,1.0,111.82712022667627
-273.83802581374056,1.0,70.84458374456736
103.74534695011016,1.0,16.383747301416165
114.90085870888748,1.0,97.34627623063132
-44.951636135365646,1.0,38.15672247264317
195.75826463946524,1.0,75.5155003382274
-100.75165673063569,1.0,55.8950213670281
97.72227172890365,1.0,103.72768944691411
365.26261361209913,1.0,122.99343802236291
151.56269695460034,1.0,70.40624738912241
109.75747877892395,1.0,49.371044686109265
-303.2149376370228,1.0,92.40161185374089
213.58759186111706,1.0,9.359963410298036
360.18868827057753,1.0,138.99238746755412
194.38382683679959,1.0,33.38270577363718
418.2966703124887,1.0,59.33974332295845
251.50636171240478,1.0,44.336670829965136
184.15548465926148,1.0,76.10769644046864
321.33591701337957,1.0,46.89184666555377
111.47949921721118,1.0,66.22517869675085
253.30683100225139,1.0,62.55859239626896
-66.996301589062,1.0,81.10286982558735
133.04896901986223,1.0,15.338121105774505
99.49380670407078,1.0,3.0194186547944355
428.3873812950541,1.0,101.8441706256566
432.5247578257447,1.0,86.48182560214026
-5.976984168532098,1.0,69.23957704876105
-87.98932348384022,1.0,65.50987318090792
-468.0812370678269,1.0,109.45867092943226
152.70110631442145,1.0,97.83451970373409
353.0891094020202,1.0,130.65238658313694
383.2458744215113,1.0,70.63662512594962
-32.877011042362994,1.0,93.2366468800549
-183.28026539903738,1.0,115.78826707441124
55.52959590748546,1.0,139.9685159816988
-91.4173999019986,1.0,97.23570190777588
-181.53374293248703,1.0,38.95733755822872
179.9716807985567,1.0,151.4075916791386
239.61587007566132,1.0,93.61339803148041
-76.25212559204374,1.0,99.784295391727
-99.63818149716502,1.0,156.76757537985506
2.360219759930729,1.0,73.73428262924887
-110.5371332642172,1.0,109.52385898252572
344.5806163365729,1.0,30.5357408360518
146.45156978121133,1.0,65.8212536334955
-221.4526966696099,1.0,71.55418939799802
539.4461414288376,1.0,80.87427092026601
45.59999304392576,1.0,116.2105724533096
181.13294980538961,1.0,121.21562886279406
-320.91980562902734,1.0,-16.57811470222292
67.90260209219451,1.0,112.3724485349855
-60.12895854145657,1.0,76.9849281498789
-186.17781839545586,1.0,12.910709809403699
-206.6830453203521,1.0,33.53381711012132
453.06842989729,1.0,41.44099940881204
-55.4814332733535,1.0,19.223875275489043
229.07947565683972,1.0,48.42732717152988
48.17776500594441,1.0,30.941853934150856
539.0068725104752,1.0,72.53014662554523
273.81342289382815,1.0,64.75267514190831
152.53355871120993,1.0,70.1887701698635
171.14933696817099,1.0,74.81943803745659
115.62053769352902,1.0,60.16951436931684
56.68146591521331,1.0,30.910627732801807
305.1029744083694,1.0,53.33765484450471
514.8033537490028,1.0,42.280095985082006
213.6173562608883,1.0,92.99524503007736
144.9718622891852,1.0,128.70632101875697
285.3275630682763,1.0,114.68602609108962
168.46987742948806,1.0,113.86202170228125
278.0486155145393,1.0,8.770167726630191
29.55510339474378,1.0,97.98351710355934
-152.65032844333533,1.0,100.08896975894572
-323.77425129628375,1.0,40.48875673489587
40.12331811080667,1.0,32.963827324268685
513.0500342718369,1.0,92.63782649019839
154.60460924394488,1.0,93.97488712226249
206.78500939488742,1.0,48.75293010190676
90.09798606804961,1.0,90.8914850849169
96.54787902506837,1.0,119.42018996729115
407.529050714643,1.0,66.57434962989505
114.20256212543724,1.0,63.22417039203742
91.98975967743542,1.0,84.59342067467773
-80.06928414706314,1.0,77.97589123528539
219.6700973115378,1.0,120.93466096980075
-306.5886729602457,1.0,85.9769215368561
-187.47694472130343,1.0,24.453285182820103
-237.8560559368167,1.0,37.3352560903431
300.2036553095411,1.0,103.03184065623643
391.7783911060409,1.0,96.66129383377671
100.40513782689189,1.0,32.096071436394645
134.00430694457344,1.0,86.06939851892075
-135.47806386238298,1.0,73.31607800790663
